ply
format ascii 1.0
element vertex 125
property float x
property float y
property float z
end_header
0.45999862168055133 0.36000701565922494 0.32498668480559006
0.45999775211617266 0.3600069235826755 0.34498668478647454
0.459996882551794 0.36000683150612606 0.364986684767359
0.4599960129874153 0.3600067394295766 0.38498668474824355
0.4599951434230367 0.3600066473530272 0.404986684729128
0.4799986216501786 0.3600063383315701 0.3249875543668499
0.4799977520857999 0.36000624625502065 0.3449875543477344
0.47999688252142125 0.36000615417847115 0.3649875543286189
0.4799960129570426 0.3600060621019217 0.3849875543095034
0.47999514339266397 0.36000597002537227 0.4049875542903879
0.49999862161980585 0.3600056610039152 0.3249884239281098
0.4999977520554272 0.36000556892736574 0.34498842390899426
0.4999968824910485 0.3600054768508163 0.3649884238898788
0.4999960129266699 0.36000538477426686 0.38498842387076326
0.49999514336229123 0.3600052926977174 0.40498842385164774
0.5199986215894331 0.36000498367626027 0.32498929348936967
0.5199977520250545 0.36000489159971083 0.34498929347025414
0.5199968824606758 0.3600047995231614 0.3649892934511386
0.5199960128962972 0.36000470744661195 0.38498929343202315
0.5199951433319184 0.3600046153700625 0.4049892934129076
0.5399986215590604 0.3600043063486054 0.32499016305062955
0.5399977519946817 0.360004214272056 0.34499016303151403
0.5399968824303031 0.3600041221955065 0.3649901630123985
0.5399960128659244 0.36000403011895704 0.38499016299328304
0.5399951433015457 0.3600039380424076 0.4049901629741675
0.4599992990042023 0.3800070156475437 0.32498677691158834
0.4599984294398236 0.38000692357099425 0.34498677689247287
0.45999755987544494 0.3800068314944448 0.36498677687335734
0.45999669031106627 0.38000673941789537 0.3849867768542418
0.4599958207466876 0.3800066473413459 0.4049867768351263
0.47999929897382954 0.3800063383198888 0.3249876464728482
0.47999842940945087 0.38000624624333934 0.3449876464537327
0.4799975598450722 0.3800061541667899 0.36498764643461723
0.4799966902806935 0.38000606209024046 0.3849876464155017
0.47999582071631486 0.380005970013691 0.4049876463963862
0.4999992989434568 0.38000566099223393 0.3249885160341081
0.4999984293790781 0.3800055689156845 0.3449885160149926
0.49999755981469945 0.380005476839135 0.36498851599587706
0.4999966902503208 0.38000538476258555 0.3849885159767616
0.49999582068594217 0.3800052926860361 0.40498851595764607
0.519999298913084 0.380004983664579 0.32498938559536794
0.5199984293487054 0.3800048915880296 0.34498938557625247
0.5199975597843267 0.38000479951148014 0.36498938555713695
0.5199966902199481 0.3800047074349307 0.3849893855380214
0.5199958206555694 0.3800046153583812 0.40498938551890595
0.5399992988827114 0.3800043063369241 0.3249902551566278
0.5399984293183326 0.3800042142603747 0.34499025513751236
0.539997559753954 0.38000412218382523 0.36499025511839683
0.5399966901895753 0.3800040301072758 0.3849902550992813
0.5399958206251967 0.38000393803072635 0.40499025508016584
0.4599999763278532 0.40000701563586244 0.32498686901758667
0.45999910676347455 0.40000692355931294 0.34498686899847114
0.4599982371990959 0.4000068314827635 0.36498686897935567
0.4599973676347172 0.40000673940621406 0.38498686896024015
0.45999649807033854 0.4000066473296646 0.4049868689411246
0.4799999762974805 0.40000633830820753 0.32498773857884655
0.4799991067331018 0.4000062462316581 0.344987738559731
0.47999823716872314 0.40000615415510865 0.3649877385406155
0.47999736760434447 0.4000060620785592 0.38498773852150003
0.4799964980399658 0.4000059700020097 0.4049877385023845
0.49999997626710774 0.4000056609805526 0.3249886081401064
0.49999910670272907 0.4000055689040032 0.3449886081209909
0.4999982371383504 0.40000547682745374 0.3649886081018754
0.49999736757397173 0.4000053847509043 0.38498860808275986
0.49999649800959306 0.40000529267435486 0.4049886080636444
0.519999976236735 0.40000498365289777 0.32498947770136627
0.5199991066723563 0.4000048915763483 0.34498947768225074
0.5199982371079777 0.40000479949979884 0.3649894776631353
0.519997367543599 0.4000047074232494 0.38498947764401975
0.5199964979792203 0.40000461534669995 0.4049894776249042
0.5399999762063622 0.40000430632524286 0.32499034726262616
0.5399991066419836 0.4000042142486934 0.34499034724351063
0.539998237077605 0.400004122172144 0.3649903472243951
0.5399973675132262 0.40000403009559454 0.38499034720527964
0.5399964979488476 0.40000393801904505 0.4049903471861641
0.4600006536515041 0.42000701562418113 0.32498696112358494
0.4599997840871255 0.4200069235476317 0.34498696110446947
0.4599989145227468 0.42000683147108225 0.36498696108535394
0.45999804495836816 0.4200067393945328 0.3849869610662384
0.4599971753939895 0.4200066473179834 0.40498696104712295
0.48000065362113137 0.4200063382965262 0.3249878306848448
0.47999978405675275 0.4200062462199768 0.34498783066572936
0.4799989144923741 0.42000615414342735 0.36498783064661383
0.4799980449279954 0.4200060620668779 0.3849878306274983
0.47999717536361675 0.42000596999032846 0.40498783060838284
0.5000006535907586 0.4200056609688714 0.3249887002461047
0.49999978402638 0.42000556889232193 0.3449887002269892
0.49999891446200134 0.4200054768157725 0.3649887002078737
0.4999980448976227 0.420005384739223 0.3849887001887582
0.499997175333244 0.42000529266267356 0.40498870016964267
0.5200006535603859 0.42000498364121647 0.3249895698073646
0.5199997839960072 0.420004891564667 0.3449895697882491
0.5199989144316286 0.4200047994881176 0.36498956976913355
0.5199980448672499 0.42000470741156815 0.3849895697500181
0.5199971753028713 0.4200046153350187 0.40498956973090255
0.5400006535300131 0.42000430631356156 0.3249904393686245
0.5399997839656345 0.4200042142370121 0.34499043934950896
0.5399989144012558 0.4200041221604627 0.36499043933039343
0.5399980448368772 0.42000403008391324 0.3849904393112779
0.5399971752724986 0.4200039380073638 0.40499043929216244
0.46000133097515505 0.4400070156124999 0.32498705322958327
0.4600004614107764 0.44000692353595044 0.34498705321046774
0.4599995918463977 0.440006831459401 0.3649870531913523
0.4599987222820191 0.4400067393828515 0.38498705317223675
0.45999785271764043 0.44000664730630207 0.4049870531531212
0.4800013309447823 0.440006338284845 0.32498792279084315
0.48000046138040364 0.44000624620829554 0.34498792277172763
0.47999959181602503 0.4400061541317461 0.36498792275261216
0.47999872225164636 0.44000606205519666 0.38498792273349663
0.4799978526872677 0.4400059699786472 0.4049879227143811
0.5000013309144096 0.44000566095719007 0.32498879235210304
0.500000461350031 0.44000556888064063 0.3449887923329875
0.4999995917856523 0.4400054768040912 0.364988792313872
0.4999987222212736 0.44000538472754175 0.38498879229475647
0.49999785265689495 0.4400052926509923 0.404988792275641
0.5200013308840369 0.4400049836295352 0.32498966191336287
0.5200004613196582 0.4400048915529858 0.3449896618942474
0.5199995917552795 0.44000479947643634 0.3649896618751319
0.5199987221909008 0.44000470739988684 0.38498966185601635
0.5199978526265222 0.4400046153233374 0.4049896618369009
0.5400013308536641 0.4400043063018803 0.32499053147462276
0.5400004612892855 0.44000421422533087 0.34499053145550723
0.5399995917249067 0.44000412214878143 0.36499053143639176
0.5399987221605281 0.440004030072232 0.38499053141727624
0.5399978525961495 0.44000393799568255 0.4049905313981607
